#, r=0.8, l=5.0
0.198271, -0.129464, 0.789455
0.952103, 0.796573, 0.073968
0.910301, 0.799999, 0.001141
0.87102, 0.796369, 0.076137
0.991104, 0.799999, -0.001517
0.911936, 0.786422, 0.146768
0.992164, 0.786581, 0.14591
1.03187, 0.79672, 0.072366
-0.585465, 0.607916, 0.520037
-0.588434, 0.509498, 0.616776
-0.545316, 0.56028, 0.57104
-0.500535, 0.60666, 0.521501
-0.540906, 0.649993, 0.466379
0.871331, 0.721729, 0.34512
0.911528, 0.748815, 0.28156
0.830821, 0.748829, 0.281523
0.83112, 0.689246, 0.406129
0.911549, 0.689224, 0.406165
0.951662, 0.721697, 0.345187
0.790443, 0.72173, 0.345117
0.871433, 0.651596, 0.464137
0.991656, 0.689173, 0.406253
0.951599, 0.651554, 0.464195
1.23197, -0.395866, 0.695191
1.31176, -0.395307, 0.695509
1.27159, -0.334313, 0.726797
1.19171, -0.334729, 0.726606
1.39143, -0.394831, 0.695779
1.35139, -0.333929, 0.726974
1.23147, -0.270707, 0.752807
1.31135, -0.270424, 0.752908
-1.10711, 0.45433, -0.658471
-1.14708, 0.396023, -0.695101
-1.18705, 0.45433, -0.658471
-1.14708, 0.509244, -0.616985
-1.06716, 0.509245, -0.616984
-1.02719, 0.454332, -0.65847
-1.06714, 0.396024, -0.695101
-1.10713, 0.560371, -0.57095
-1.02723, 0.560374, -0.570947
-0.987257, 0.509253, -0.616977
0.590147, 0.39675, 0.694687
0.508509, 0.395961, 0.695136
0.910009, -0.786313, 0.147347
0.868795, -0.770278, 0.216037
0.950059, -0.796254, 0.07733
0.235001, -0.065981, -0.797274
0.157448, -0.064815, -0.79737
0.196143, -0, -0.8
0.273655, -0, -0.8
0.079865, -0.06403, -0.797433
0.118697, -0, -0.8
0.157448, 0.064803, -0.797371
1.72867, -0.695609, -0.395131
1.66854, -0.725377, -0.337385
1.7432, -0.738339, -0.307986
1.75127, -0.649624, -0.466893
1.80837, -0.718668, -0.351449
1.80995, -0.678482, -0.423866
1.23131, 0.689064, 0.406437
1.31119, 0.689096, 0.406383
1.27122, 0.721589, 0.345412
1.19139, 0.721564, 0.345464
1.15146, 0.689063, 0.406438
1.27127, 0.651424, 0.464378
1.19137, 0.651413, 0.464394
1.35118, 0.651455, 0.464335
1.35132, 0.721588, 0.345413
1.39178, 0.689206, 0.406195
1.31162, 0.748942, 0.281221
1.23128, 0.748697, 0.281874
-1.87736, 0.51352, 0.613431
-1.94945, 0.508739, 0.617402
-1.83309, 0.455998, 0.657317
-2.07842, 0.505885, 0.619742
-2.08466, 0.444908, 0.664873
-2.01163, 0.535695, 0.594164
0.334015, 0.502121, 0.622796
0.464932, 0.453564, 0.658999
0.548097, 0.45494, 0.65805
-2.5, -0.509902, -0.616441
-2.4308, -0.478498, -0.641124
-2.36163, -0.509922, -0.616425
-2.02166, 0.478163, -0.641374
-1.94773, 0.509759, -0.61656
-1.82591, 0.45322, -0.659236
-1.86479, 0.505873, -0.619752
0.581961, 0.688792, 0.406897
0.667446, 0.689126, 0.406331
0.491842, 0.687811, 0.408553
0.626469, 0.651367, 0.464458
0.708345, 0.72168, 0.345221
0.750018, 0.689228, 0.406159
0.709546, 0.651554, 0.464196
-1.9918, -0.205232, 0.773227
-2.03209, -0.27059, 0.752849
-1.95193, -0.271188, 0.752633
-1.95189, -0.137775, 0.788047
-2.03169, -0.137739, 0.788053
-1.91193, -0.205372, 0.77319
-2.07188, -0.205304, 0.773208
-2.11335, -0.271324, 0.752584
-2.07168, -0.332353, 0.727696
-1.99208, -0.334805, 0.726571
0.0048, -0.561195, -0.57014
-0.062973, -0.577653, -0.553459
-0.036351, -0.524131, -0.60439
0.064867, -0.571139, -0.560179
0.000894, -0.612315, -0.51485
0.042915, -0.514279, -0.612794
-0.145126, -0.590398, -0.539842
-0.115165, -0.537533, -0.592501
-0.087036, -0.627865, -0.495768
-0.087631, -0.482341, -0.638238
-0.014255, -0.472817, -0.645325
2.5, -0.404265, -0.350201
2.5, -0.41188, -0.429195
2.5, -0.341044, -0.397378
2.5, -0.456466, -0.312698
2.5, -0.477813, -0.381785
2.5, -0.33839, -0.315208
2.5, -0.422478, -0.506746
2.5, -0.348415, -0.475507
2.5, -0.479199, -0.46133
2.5, -0.271927, -0.443676
2.5, -0.273582, -0.363056
0.227894, -0.592596, -0.53743
0.280756, -0.549741, -0.581193
0.316413, -0.600351, -0.528752
0.144088, -0.581637, -0.549271
0.197507, -0.540321, -0.58996
0.26229, -0.639669, -0.48044
0.172079, -0.630623, -0.492254
0.205478, -0.674202, -0.430641
0.115079, -0.665663, -0.443726
0.087178, -0.618991, -0.506804
0.43098, -0.266213, 0.754408
0.472389, -0.202508, 0.773945
0.351512, -0.262914, 0.755564
0.388502, -0.326967, 0.730132
0.393138, -0.200409, 0.774491
0.55195, -0.203881, 0.773584
0.433822, -0.135332, 0.78847
0.51289, -0.136457, 0.788276
1.31012, 0.60697, -0.521141
1.23022, 0.607864, -0.520098
1.27122, 0.650071, -0.466269
1.35071, 0.649153, -0.467547
1.38922, 0.606018, -0.522247
1.34891, 0.559367, -0.571934
1.26939, 0.560312, -0.571008
1.19078, 0.650781, -0.465279
1.18933, 0.561078, -0.570256
1.14973, 0.608462, -0.519398
1.31209, 0.687466, -0.409133
1.55113, 0.510632, 0.615837
1.47116, 0.510611, 0.615854
1.51114, 0.455514, 0.657653
1.5911, 0.455511, 0.657655
1.51116, 0.561918, 0.569428
1.43117, 0.56188, 0.569465
1.47154, 0.609406, 0.51829
-0.90766, 0.607434, -0.5206
-0.98738, 0.607357, -0.52069
-0.947665, 0.649875, -0.466543
-0.827986, 0.607657, -0.520339
-0.867625, 0.560505, -0.570819
-0.868096, 0.65005, -0.4663
-0.947396, 0.560401, -0.570921
-1.02735, 0.649828, -0.466608
-1.0672, 0.607343, -0.520706
-0.908155, 0.687652, -0.408822
-0.987639, 0.687537, -0.409014
-1.06714, 0.137609, -0.788076
-1.10711, 0.205061, -0.773272
-0.585625, 0.608567, -0.519275
-0.544778, 0.561432, -0.569908
-0.626937, 0.561428, -0.569911
-0.667522, 0.608414, -0.519454
-0.626577, 0.651076, -0.464866
-0.460669, 0.560913, -0.570418
-0.586433, 0.510183, -0.616208
-0.504152, 0.50999, -0.616369
-1.27313, -0.720522, -0.347632
-1.23371, -0.748065, -0.283547
-1.31427, -0.747711, -0.284479
-1.23202, -0.688203, -0.407893
-1.19237, -0.721067, -0.3465
-1.39261, -0.747131, -0.285999
-1.27125, -0.65006, -0.466285
0.017183, 0.571687, -0.559619
0.076372, 0.561973, -0.569374
0.038299, 0.514448, -0.612653
-0.03788, 0.52849, -0.600582
-0.06212, 0.581646, -0.549262
-0.003595, 0.620341, -0.50515
0.082035, 0.613718, -0.513177
0.095457, 0.472944, -0.645232
0.038842, 0.460907, -0.653885
0.117394, 0.524491, -0.604077
-0.018405, 0.47329, -0.644978
0.144226, 0.578102, -0.55299
2.5, 0.518715, 0.423378
2.5, 0.592508, 0.434487
2.43092, 0.645183, 0.473011
2.36168, 0.621042, 0.504288
-1.15498, 0.608414, 0.519454
-1.11511, 0.651168, 0.464737
-1.15628, 0.688679, 0.407089
0.079171, 0.75892, 0.253061
0.118024, 0.737703, 0.309506
-2.5, -0.442218, -0.579539
-2.5, -0.445898, -0.66421
-2.43073, -0.412237, -0.68561
-2.36153, -0.445984, -0.664153
0.130778, 0.781324, -0.171853
0.157299, 0.793321, -0.103162
0.206776, 0.783418, -0.162039
0.355065, -0.645629, -0.472401
0.367336, -0.555937, -0.575269
-0.508047, -0, -0.8
-0.587677, -0, -0.8
-0.547937, 0.069042, -0.797015
-0.468475, -0.068985, -0.79702
-0.547938, -0.06912, -0.797008
-0.428691, -0, -0.8
-0.468475, 0.068917, -0.797026
-0.587755, -0.137793, -0.788044
-0.627624, -0.069166, -0.797004
-0.508103, -0.137646, -0.78807
-1.36237, 0.794752, 0.091479
-1.32402, 0.785396, 0.152162
-1.28532, 0.796127, 0.078623
-1.34693, 0.799787, 0.018442
-1.43162, 0.798157, 0.054275
-1.41421, 0.786024, 0.148881
-1.24084, 0.786182, 0.148049
-1.28018, 0.769713, 0.21804
-1.36061, 0.769683, 0.218148
-1.20122, 0.796669, 0.072927
-1.25409, 0.799994, -0.002997
0.667007, -0.396492, -0.694834
0.626143, -0.454991, -0.658015
0.454067, 0.559638, -0.571668
0.366342, 0.55592, -0.575285
1.78662, 0.605156, -0.523246
1.81957, 0.639676, -0.480432
1.87168, 0.606445, -0.521752
1.74696, 0.653624, -0.461276
1.83751, 0.561019, -0.570314
1.74809, 0.559739, -0.57157
1.70552, 0.607173, -0.520904
1.81727, 0.680273, -0.420985
1.88468, 0.655531, -0.458561
0.630084, 0.45543, 0.657711
-0.672328, 0.271156, 0.752645
-0.631789, 0.334881, 0.726536
-0.792503, 0.205362, 0.773192
-0.712531, 0.205277, 0.773215
-1.75006, -0.76724, 0.226589
-1.67692, -0.754746, 0.265251
-1.74443, -0.735597, 0.31448
-1.81497, -0.750873, 0.276025
-1.82306, -0.777757, 0.187333
-1.61182, -0.769607, 0.218415
-1.60116, -0.734889, 0.316129
-1.67786, -0.723023, 0.342401
-1.73115, -0.693311, 0.399149
-1.80909, -0.714281, 0.360281
-1.54638, -0.394609, -0.695905
-1.46673, -0.394584, -0.695919
-1.50653, -0.452522, -0.659715
-1.50659, -0.333652, -0.727101
-0.218527, -0.443889, 0.665555
-0.228024, -0.326397, 0.730387
2.43272, -0.756942, -0.258918
2.36423, -0.743716, -0.294766
2.5, -0.696767, -0.238251
2.5, -0.625483, -0.249029
0.383172, 0.785006, -0.154161
0.291878, 0.78456, -0.156416
-2.14693, 0.069227, -0.796999
-2.0668, 0.069144, -0.797006
-1.23219, -0.748703, 0.281857
-1.31253, -0.748937, 0.281235
-1.27317, -0.770617, 0.214824
-1.15238, -0.748683, 0.28191
-1.1923, -0.721567, 0.345457
-1.1923, -0.770562, 0.215023
-1.27217, -0.721598, 0.345392
1.35493, -0.649096, 0.467626
1.39345, -0.605965, 0.522309
1.19132, 0.335504, 0.726248
1.27127, 0.335504, 0.726248
1.23129, 0.39699, 0.694549
1.15134, 0.396991, 0.694549
1.11136, 0.335506, 0.726248
1.23129, 0.271494, 0.752523
1.15134, 0.271494, 0.752523
1.31125, 0.396991, 0.694549
1.31125, 0.271494, 0.752523
1.35123, 0.335505, 0.726248
1.19132, 0.455495, 0.657666
1.27127, 0.455495, 0.657666
0.870726, -0.56179, 0.569554
0.789433, -0.561616, 0.569726
0.867287, 0.069168, -0.797004
0.787391, 0.069174, -0.797004
0.907242, -0, -0.8
0.827312, -0, -0.8
0.947215, 0.069153, -0.797006
0.707571, 0.069165, -0.797005
0.747491, 0.137828, -0.788038
0.747422, -0, -0.8
-2.5, 0.387004, 0.131823
-2.5, 0.396887, 0.063695
-2.5, 0.316182, 0.110749
-2.5, 0.344708, 0.199453
-2.5, 0.460296, 0.105811
-2.5, 0.432342, 0.178198
1.95091, 0.137777, 0.788047
1.871, 0.137813, 0.78804
1.99093, 0.069164, 0.797005
2.03073, 0.13775, 0.788051
1.91094, 0.205376, 0.773189
1.99083, 0.205249, 0.773222
1.83102, 0.205428, 0.773175
1.79104, 0.137826, 0.788038
-1.71504, -0.608518, 0.519332
-1.67635, -0.654291, 0.46033
-1.63346, -0.609985, 0.517608
-1.75705, -0.562652, 0.568703
-1.80252, -0.614237, 0.512555
-1.74795, -0.649274, 0.467379
0.530155, 0.720869, -0.346912
0.577516, 0.68876, -0.406952
-0.489805, -0.786257, -0.14765
-0.443513, -0.796334, -0.076494
-0.578827, -0.786638, -0.145603
0.119782, 0.12808, 0.789681
0.159796, 0.064809, 0.797371
0.157657, 0.192314, 0.776541
0.199212, 0, 0.8
0.053594, -0.602316, 0.526513
-0.011234, -0.612479, 0.514655
0.050323, -0.646451, 0.471276
0.113925, -0.614386, 0.512376
-0.431644, 0.268665, 0.753538
-0.351358, 0.266468, 0.754318
-0.389473, 0.330772, 0.728416
-0.472781, 0.203931, 0.773571
-0.392968, 0.202626, 0.773914
-0.470436, 0.332937, 0.727429
-0.511945, 0.270017, 0.753054
-0.27131, 0.263258, 0.755444
-0.308612, 0.327431, 0.729924
-0.345999, 0.38968, 0.698677
-0.42781, 0.392904, 0.696869
0.0119, 0.69857, -0.389871
0.048141, 0.72604, -0.335955
-0.071515, 0.704764, -0.37856
0.088708, 0.699794, -0.38767
0.047563, 0.659811, -0.452382
-0.035613, 0.665123, -0.444535
-1.07497, 0.688974, 0.406589
-1.03463, 0.721568, 0.345455
-1.11617, 0.721385, 0.345837
-1.07584, 0.748609, 0.282107
-0.994132, 0.748693, 0.281884
-0.953224, 0.721641, 0.345302
0.500075, 0.509399, -0.616857
0.414855, 0.507016, -0.618817
-1.63921, -0.694554, 0.396982
-1.53122, -0.760047, 0.249658
-1.59475, -0.654022, 0.460712
0.222681, -0.430362, 0.67438
0.300375, -0.437537, 0.669747
0.265887, -0.378173, 0.704972
0.180092, -0.479114, 0.640663
0.255289, -0.486798, 0.634844
0.189244, -0.37191, 0.708296
0.148718, -0.423701, 0.678585
0.380859, -0.443965, 0.665504
0.344916, -0.38422, 0.701695
0.334838, -0.494454, 0.6289
0.309007, -0.322309, 0.7322
0.230886, -0.316996, 0.734516
0.429826, -0, -0.8
0.35149, -0, -0.8
0.390845, 0.068073, -0.797099
0.469429, -0.068616, -0.797052
0.46943, 0.068668, -0.797048
0.508694, -0, -0.8
1.23131, 0.608905, 0.518879
1.1514, 0.60891, 0.518873
1.19134, 0.561845, 0.569499
1.27128, 0.561847, 0.569498
1.31124, 0.608917, 0.518864
1.2313, 0.510582, 0.615878
1.15136, 0.510585, 0.615876
1.11141, 0.561859, 0.569486
-0.052686, 0.795867, 0.081215
0.038412, 0.793051, 0.105214
0.010052, 0.799499, 0.028294
-0.07138, 0.79999, 0.00392
-0.022261, 0.784221, 0.158104
-0.149089, 0.798357, 0.05125
-0.116244, 0.788977, 0.132347
0.067253, 0.778412, 0.184595
0.124641, 0.789195, 0.131039
0.09079, 0.798905, 0.041839
0.052672, 0.79893, -0.041367
-0.018209, 0.79909, -0.038149
-0.827566, 0.509417, -0.616842
-0.867389, 0.454394, -0.658427
-0.827378, 0.396098, -0.695058
-0.907398, 0.509292, -0.616945
-0.947275, 0.454345, -0.658461
-0.546955, -0.335417, -0.726289
-0.507292, -0.271253, -0.75261
-0.627295, -0.335549, -0.726228
-0.587431, -0.271478, -0.752529
-0.505851, -0.396738, -0.694693
-0.586837, -0.397008, -0.694539
-0.351779, 0.715688, 0.357479
-0.392633, 0.745036, 0.291411
-0.444828, 0.718759, 0.351262
-0.297091, 0.741513, 0.300265
-0.258833, 0.71062, 0.36745
-0.312757, 0.680215, 0.421079
-0.404004, 0.684609, 0.413897
-0.535561, 0.720343, 0.348002
-0.494183, 0.687034, 0.409858
-0.486734, 0.747018, 0.286293
-0.337679, 0.765951, 0.230909
-0.434956, 0.768199, 0.223316
1.15154, -0.270992, 0.752704
1.19139, -0.204962, 0.773298
1.11144, -0.205139, 0.773252
1.07156, -0.271214, 0.752624
1.11173, -0.335073, 0.726447
1.27132, -0.204775, 0.773348
1.2313, -0.137476, 0.788099
1.15135, -0.137582, 0.788081
1.30693, -0.395937, -0.69515
1.227, -0.395937, -0.69515
1.18703, -0.334678, -0.72663
-0.397596, -0.785688, 0.150644
-0.397083, -0.799998, -0.001941
-0.35053, -0.796334, 0.076502
0.706993, -0.561345, -0.569992
0.747586, -0.608312, -0.519573
0.706714, -0.651, -0.464972
0.578897, -0.688475, -0.407434
0.664707, -0.688721, -0.407019
1.47433, 0.690837, 0.403415
1.4319, 0.651905, 0.463703
1.51086, -0.452522, 0.659715
1.55046, -0.507244, 0.61863
1.43143, -0.452718, 0.659581
1.47132, -0.507265, 0.618613
1.47105, -0.394579, 0.695922
-1.31931, 0.747652, 0.284635
-1.39716, 0.747044, 0.286226
-1.19231, -0.06918, 0.797003
-1.15233, 0, 0.8
-1.23229, 0, 0.8
-1.15233, -0.13783, 0.788037
-1.11235, -0.06918, 0.797003
-1.27226, -0.06918, 0.797003
-1.23228, -0.13783, 0.788037
-1.1923, 0.069046, 0.797015
-1.11235, 0.069089, 0.797011
-1.07237, 0, 0.8
-1.27226, 0.069007, 0.797018
-1.31224, 0, 0.8
1.55335, 0.756901, -0.259038
1.4723, 0.750245, -0.277728
1.48827, 0.775013, -0.198382
1.56217, 0.782386, -0.16695
1.58895, 0.724248, -0.339801
1.51286, 0.724891, -0.338428
1.62764, 0.772261, -0.208838
1.62723, 0.74795, -0.283849
1.43283, 0.720826, -0.347
1.39245, 0.747065, -0.28617
1.42506, 0.767761, -0.224817
1.49141, 0.790678, -0.12177
1.44067, 0.768131, 0.223549
1.51623, 0.726403, 0.33517
1.46556, 0.746799, 0.286864
1.5657, 0.799939, -0.00989
1.48782, 0.799656, 0.023471
0.951596, -0.721594, 0.345402
0.992588, -0.748627, 0.282059
1.03331, -0.721537, 0.345521
0.910428, -0.748651, 0.281995
0.951469, -0.770274, 0.21605
1.03389, -0.770287, 0.216005
1.07459, -0.748561, 0.282236
1.51093, -0.333657, 0.727099
1.55096, -0.270257, 0.752968
1.47107, -0.270167, 0.753001
1.43115, -0.333689, 0.727084
1.3912, -0.270225, 0.75298
1.51108, -0.204607, 0.773393
1.43115, -0.204569, 0.773403
-0.789198, 0.720766, -0.347125
-0.7487, 0.68835, -0.407645
-0.828672, 0.687945, -0.408328
-0.829573, 0.747847, -0.284121
-0.74933, 0.74816, -0.283296
-0.708495, 0.721108, -0.346415
-0.868848, 0.720415, -0.347853
0.705333, 0.651548, -0.464203
0.622106, 0.651353, -0.464478
0.786837, 0.651597, -0.464134
0.746517, 0.609069, -0.518686
0.745881, 0.689224, -0.406166
0.663137, 0.689118, -0.406346
-1.111, -0.72141, -0.345785
-1.15238, -0.748429, -0.282585
-1.15105, -0.688713, -0.407031
-1.19081, -0.650775, -0.465287
1.15725, -0.786574, 0.145947
1.07544, -0.78635, 0.147154
1.11395, -0.796778, 0.071725
1.19803, -0.770239, 0.216177
1.11621, -0.770281, 0.216026
1.19673, -0.796805, 0.071421
1.24002, -0.786671, 0.145428
0.249706, 0.796103, -0.078864
0.341176, 0.796181, -0.078071
0.236501, 0.79998, 0.005631
0.187007, 0.799453, -0.029575
0.431449, 0.796386, -0.075956
1.2296, -0.799991, -0.003816
1.14982, -0.799992, -0.003517
1.18726, -0.796053, -0.079372
1.28402, -0.797071, 0.068389
1.26552, -0.795896, -0.080932
1.29772, -0.799913, -0.01179
1.10806, -0.796086, -0.079041
1.06598, -0.799994, -0.003078
1.22697, -0.785601, -0.151098
1.14714, -0.785626, -0.150969
0.669041, 0.608977, 0.518794
0.707158, -0.454937, -0.658052
0.666483, -0.510119, -0.616262
-1.22701, 0.396023, -0.695101
-1.26698, 0.334743, -0.726599
-1.30695, 0.396023, -0.695101
-1.26698, 0.45433, -0.658471
-1.18705, 0.334744, -0.726599
1.0673, -0.607213, -0.520857
1.10716, -0.560241, -0.571078
1.06718, -0.509132, -0.617078
1.10727, -0.649682, -0.466812
1.14712, -0.607202, -0.52087
1.14708, -0.509124, -0.617084
-0.5907, 0.395959, 0.695138
-0.630377, 0.454758, 0.658176
-0.708127, 0.650816, -0.46523
-0.788417, 0.650405, -0.465804
-0.667555, 0.688673, -0.407099
2.43066, 0.341745, -0.723333
2.5, 0.305322, -0.739445
2.43048, 0.267866, -0.753822
2.43075, 0.412097, -0.685694
2.36135, 0.304425, -0.739814
2.36138, 0.377157, -0.705516
2.5, 0.246816, -0.693186
2.5, 0.194002, -0.645745
2.5, 0.176917, -0.713312
2.5, 0.230585, -0.766049
2.42806, 0.190844, -0.776903
2.36236, 0.227398, -0.767001
2.01879, -0.651164, 0.464742
1.95875, -0.71759, 0.353645
2.02369, -0.696007, 0.394429
1.82348, -0.722312, 0.343897
1.89399, -0.737308, 0.310445
-1.90665, 0.205155, -0.773247
-1.98682, 0.205303, -0.773208
2.22316, -0.51453, -0.612584
2.15471, -0.483233, -0.637563
2.22375, -0.450855, -0.660855
2.22311, -0.573106, -0.558166
2.15392, -0.544573, -0.586038
2.29239, -0.483161, -0.637617
2.29231, -0.544396, -0.586202
2.08822, -0.449995, -0.661441
2.15763, -0.416403, -0.683087
2.08567, -0.514162, -0.612893
2.22316, -0.382742, -0.702502
2.29235, -0.416817, -0.682835
2.5, 0.045676, -0.325585
2.5, -0.043891, -0.331717
2.5, 0.010703, -0.40102
2.5, -0.00342, -0.257358
2.5, 0.079169, -0.246635
2.5, 0.090706, -0.390405
2.5, 0.134761, -0.313335
2.5, 0.058271, -0.467968
2.5, -0.018923, -0.477482
2.5, -0.069134, -0.410353
2.5, -0.131721, -0.342692
2.5, -0.096653, -0.250991
1.83083, -0.334931, 0.726513
1.87095, -0.396663, 0.694736
1.91093, -0.334933, 0.726512
1.79084, -0.396428, 0.69487
1.87091, -0.271155, 0.752645
1.79091, -0.270975, 0.75271
-1.40368, -0.78702, 0.143527
-1.31556, -0.78685, 0.144457
-1.35604, -0.770815, 0.214114
-1.48406, -0.793005, 0.10556
-1.42463, -0.797313, 0.065517
-1.35435, -0.79699, 0.069328
-1.4814, -0.779306, 0.18078
-1.44126, -0.768087, 0.223703
-1.55055, -0.783822, 0.16007
-1.55872, -0.796829, 0.071156
-1.48763, -0.799638, 0.024073
-1.66662, -0.204875, -0.773322
-1.5466, -0.270248, -0.752971
-1.58666, -0.204717, -0.773363
0.184426, 0.374734, -0.706806
0.07739, 0.308963, -0.737931
0.111663, 0.367119, -0.710791
0.141686, 0.425627, -0.677378
-1.11721, 0.770285, 0.216012
-1.03516, 0.770425, 0.215511
-1.15761, 0.748402, 0.282655
-1.07599, 0.786504, 0.146329
-1.1586, 0.786441, 0.146664
-1.19913, 0.77006, 0.216814
-0.953292, 0.770479, 0.215318
-0.993745, 0.786595, 0.145839
2.5, 0.218417, 0.481762
2.5, 0.275674, 0.531962
2.5, 0.14131, 0.437709
2.5, 0.167943, 0.345199
0.531361, -0.647863, 0.469333
0.571702, -0.686843, 0.410179
0.619096, -0.649951, 0.466437
0.481316, -0.68387, 0.415117
0.442712, -0.643692, 0.475038
0.492185, -0.60355, 0.525098
0.578807, -0.606546, 0.521634
0.521471, -0.718308, 0.352183
2.5, -0.377645, 0.558085
2.5, -0.441752, 0.588416
2.5, -0.374763, 0.491179
2.5, -0.320866, 0.512885
2.5, -0.431186, 0.516105
2.5, -0.253638, 0.545766
2.5, 0.668947, 0.058528
2.5, 0.673327, -0.01032
2.5, 0.736005, 0.033151
2.5, 0.728995, 0.104952
2.5, 0.659105, 0.127052
2.5, 0.60032, 0.079666
2.5, 0.607458, 0.010223
2.5, 0.715601, 0.175485
2.5, 0.646891, 0.192124
2.5, 0.588049, 0.149254
2.43172, 0.725185, 0.337798
2.36269, 0.70796, 0.37255
2.43118, 0.688599, 0.407224
2.5, 0.740881, 0.30182
2.43264, 0.754689, 0.265413
2.5, 0.707834, 0.372788
2.36197, 0.667828, 0.440461
2.29327, 0.689134, 0.406318
2.5, 0.667812, 0.440485
-2.4353, 0.79202, -0.11271
-2.37157, 0.796533, -0.0744
-2.30996, 0.799051, 0.038949
-2.30873, 0.799198, -0.035807
2.03094, 0, 0.8
2.0707, 0.069138, 0.797007
2.11069, 0, 0.8
2.0707, -0.069136, 0.797007
1.99093, -0.069154, 0.797005
0.226426, 0.59046, -0.539775
0.17076, 0.627567, -0.496144
0.196124, 0.537802, -0.592257
0.279373, 0.548731, -0.582146
0.194265, 0.256501, 0.757765
0.152874, 0.313796, 0.735889
0.117201, 0.25202, 0.759267
0.077596, 0.309349, 0.737769
0.186899, 0.374913, 0.706711
2.36153, -0.514392, -0.6127
-0.548778, 0.453909, 0.658761
-0.505655, 0.508246, 0.617807
-0.46087, 0.558473, 0.572807
-2.5, 0.257209, 0.187034
-2.5, 0.269915, 0.044863
-2.5, 0.224758, 0.113423
-2.5, 0.334005, 0.020875
-2.5, 0.480598, 0.024139
-2.5, 0.410547, -0.015535
-2.5, 0.668766, 0.439036
-2.5, 0.708733, 0.371077
-2.5, 0.632209, 0.372049
-2.4317, 0.689472, 0.405743
-2.43118, 0.646068, 0.4718
-2.5, 0.621971, 0.503143
-2.43252, 0.725901, 0.336255
-2.5, 0.74156, 0.300149
-2.5, 0.666743, 0.308659
-2.36434, 0.70876, 0.371025
-2.36296, 0.668746, 0.439065
-2.5, 0.593614, 0.311173
-1.97343, 0.774392, 0.200791
-1.90128, 0.765763, 0.231533
-1.91102, 0.785614, 0.151032
-2.03668, 0.761059, 0.246555
-1.96537, 0.750121, 0.278063
-1.98355, 0.790408, 0.123514
-2.04489, 0.781231, 0.172274
-1.9202, 0.796969, 0.069579
-1.89399, 0.737236, 0.310617
-1.82895, 0.75495, 0.26467
-1.75268, -0.45564, 0.657565
-1.79506, -0.51073, 0.615755
-1.71205, -0.396948, 0.694573
-1.79234, -0.397185, 0.694438
-1.83401, -0.456052, 0.657279
-1.67207, -0.335503, 0.726249
-1.75206, -0.335492, 0.726254
-1.27542, -0.769668, -0.218198
-1.35553, -0.769602, -0.218431
-1.78654, -0.270967, -0.752713
-1.74661, -0.20504, -0.773278
-1.82647, -0.334931, -0.726513
-1.86659, -0.271162, -0.752643
-1.82662, -0.205178, -0.773241
-1.70666, -0.137583, -0.788081
-1.78665, -0.137665, -0.788066
-2.5, -0.085615, -0.601962
-2.5, -0.033069, -0.55166
-2.5, -0.031518, -0.619342
-2.5, -0.147675, -0.590466
-2.5, -0.065598, -0.671036
-2.5, -0.105198, -0.53312
-2.5, 0.000137, -0.675559
-2.5, -0.035441, -0.735153
-2.15501, -0.597544, -0.531923
-2.15664, -0.648247, -0.468802
-2.2245, -0.622829, -0.50208
-2.08595, -0.62446, -0.500049
-2.22363, -0.569359, -0.561988
-2.15469, -0.541, -0.589338
-2.085, -0.57081, -0.560514
-2.29293, -0.596354, -0.533256
-2.29386, -0.646575, -0.471106
-2.2263, -0.670053, -0.437068
-1.93254, 0.566473, 0.564897
-1.79338, 0.510356, 0.616065
-1.8403, 0.56143, 0.569909
-2.5, 0.641127, 0.189485
-2.5, 0.693616, 0.242327
-2.36902, 0.785886, -0.149608
-2.5, 0.663957, -0.124237
-1.11331, 0.455077, 0.657955
-1.15386, 0.509985, 0.616373
-1.23398, 0.509359, 0.61689
0.272783, -0.25884, 0.756969
-2.5, 0.595266, -0.430214
-2.5, 0.624635, -0.499831
-2.43092, 0.648457, -0.468512
-0.22297, 0.673647, 0.431508
-0.275669, 0.639004, 0.481325
-2.29556, -0.690238, -0.404439
-2.29251, -0.540173, -0.590096
2.36155, 0.377125, 0.705533
2.36153, 0.445467, 0.664499
2.29251, 0.41198, 0.685764
2.29305, 0.342467, 0.722991
2.35955, 0.304433, 0.739811
2.43054, 0.341485, 0.723456
2.43075, 0.411799, 0.685873
2.29246, 0.478071, 0.641442
2.22373, 0.446053, 0.664106
2.22359, 0.378615, 0.704734
0.987204, 0.137756, -0.78805
-2.5, 0.622819, 0.251885
-2.5, 0.555825, 0.258387
1.26805, 0.454001, -0.658698
1.30847, 0.508607, -0.61751
1.34767, 0.453292, -0.659186
1.18817, 0.454656, -0.658246
1.22872, 0.509427, -0.616834
1.14861, 0.510036, -0.61633
-2.43055, 0.345952, -0.72133
-2.36148, 0.381416, -0.703223
-2.35948, 0.30802, -0.738325
-2.5, 0.381758, -0.703037
-2.43074, 0.416363, -0.683112
-2.29235, 0.416192, -0.683216
-2.29292, 0.345989, -0.721313
-2.36149, 0.449887, -0.661515
-2.5, 0.076893, 0.796296
-2.5, 0.106545, 0.726878
-2.5, 0.064905, 0.669134
-2.5, 0.02801, 0.615091
1.03149, 0.561898, 0.569448
0.951539, 0.561955, 0.569391
0.991491, 0.510644, 0.615827
0.991562, 0.609003, 0.518763
1.07143, 0.510603, 0.615861
1.07149, 0.608943, 0.518834
0.911541, 0.609059, 0.518697
0.871486, 0.562, 0.569347
0.911519, 0.510695, 0.615785
0.951491, 0.45556, 0.657621
1.03144, 0.45552, 0.657648
-2.05459, -0.793722, -0.100024
-1.98361, -0.790606, -0.122238
-1.99906, -0.798872, -0.042466
-2.06855, -0.798988, -0.040229
-2.11533, -0.787306, -0.141949
-2.04502, -0.781452, -0.17127
-2.12347, -0.796695, -0.072644
-1.9111, -0.785819, -0.149964
-1.91994, -0.797118, -0.067839
-1.97356, -0.774606, -0.199962
-1.93292, -0.799992, -0.003473
-1.98507, -0.798991, 0.040166
-2.05271, -0.799793, 0.018189
-0.39562, 0.785554, -0.151343
-0.29868, 0.78427, -0.157861
-0.350046, 0.768423, -0.222544
-0.446078, 0.769638, -0.218304
-0.490617, 0.786214, -0.147877
-0.442359, 0.7962, -0.077881
-0.344966, 0.796182, -0.078068
2.5, 0.091648, 0.660478
2.5, 0.167595, 0.707734
2.4307, 0.268138, 0.753725
2.36153, 0.229691, 0.766317
2.5, 0.230348, 0.76612
2.29244, -0.480275, 0.639793
2.29244, -0.414205, 0.684423
2.22368, -0.448225, 0.662642
2.22319, -0.511725, 0.614929
2.29249, -0.541509, 0.588871
2.36158, -0.511393, 0.615205
2.36152, -0.447684, 0.663008
2.22334, -0.380765, 0.703575
2.293, -0.344558, 0.721997
2.15629, -0.414953, 0.683969
2.15366, -0.48046, 0.639655
2.22984, 0.069414, 0.796983
2.19007, 0, 0.8
2.26884, 0, 0.8
2.27187, 0.137054, 0.788173
2.1908, 0.137685, 0.788063
2.15031, 0.069198, 0.797002
2.30955, 0.071689, 0.796781
2.30313, 0.197759, 0.775172
2.23128, 0.204543, 0.773409
0.120629, 0, 0.8
0.238255, -0.065618, 0.797304
0.041516, 0, 0.8
-0.235427, 0.600237, -0.528882
-0.325783, 0.604954, -0.523479
-0.274149, 0.645564, -0.47249
-0.286592, 0.555881, -0.575322
-0.180982, 0.639489, -0.480681
-0.199724, 0.549562, -0.581361
-0.146541, 0.59236, -0.537689
-0.374356, 0.559351, -0.571949
-0.219664, 0.680913, -0.41995
-2.5, 0.49917, -0.539151
-2.5, 0.431613, -0.515267
-2.5, 0.480414, -0.469033
-2.5, 0.513669, -0.613306
-2.5, 0.443177, -0.586303
-2.5, 0.57206, -0.559238
-2.5, 0.549915, -0.486627
-2.43077, 0.543477, -0.587054
-2.43075, 0.482395, -0.638196
-2.36156, 0.571944, -0.559357
-2.36152, 0.513548, -0.613407
-2.43081, 0.599014, -0.530266
-2.24272, -0.796529, 0.074445
-2.18152, -0.799221, 0.035285
-2.17428, -0.792693, 0.107878
-2.23699, -0.786022, 0.148894
-2.30515, -0.79183, 0.11404
-2.5, -0.377479, -0.705344
-2.36135, -0.377301, -0.705439
-2.5, 0.318055, -0.662852
-2.5, 0.450032, -0.661416
-2.5, 0.382419, -0.62739
-2.5, 0.260244, -0.620885
-2.5, 0.318915, -0.589508
-1.11246, -0.721565, 0.345462
-1.11265, -0.770502, 0.215237
-1.07259, -0.748698, 0.281871
-1.15237, -0.68906, 0.406443
-1.23226, -0.689074, 0.40642
0.28723, -0.742206, -0.298547
0.342394, -0.716324, -0.356202
0.385922, -0.745457, -0.290334
0.189419, -0.738076, -0.308615
0.243396, -0.711308, -0.366116
0.332547, -0.766358, -0.229553
0.236296, -0.764164, -0.236754
0.300874, -0.681007, -0.419797
0.438751, -0.719273, -0.350209
0.396096, -0.685323, -0.412713
0.430859, -0.768385, -0.222675
0.482389, -0.747358, -0.285404
2.36151, -0.231414, 0.765799
2.28309, -0.268649, 0.753543
2.37116, -0.785165, 0.15335
2.43489, -0.776856, 0.191034
2.5, -0.714085, 0.174889
2.5, -0.661935, 0.118968
2.5, -0.519498, -0.3139
2.5, -0.552067, -0.249227
-1.78648, -0.396442, -0.694862
-1.7465, -0.454568, -0.658307
-1.86667, -0.396731, -0.694697
-1.8278, -0.456153, -0.657209
-0.622451, -0.770529, -0.215139
-0.748383, 0.748634, 0.282042
-0.830796, 0.748704, 0.281856
-0.664326, 0.748439, 0.282558
-0.789481, 0.77039, 0.215636
-0.912529, 0.748716, 0.281824
-0.871858, 0.721642, 0.3453
-0.871629, 0.770485, 0.215297
-2.5, -0.341209, 0.230046
-2.5, -0.363407, 0.168998
-2.5, -0.411538, 0.233495
-2.5, -0.368683, 0.293478
-2.5, 0.054505, -0.188468
-2.5, 0.055473, -0.262549
-2.5, -0.023804, -0.202579
-2.5, 0.023454, -0.119393
-2.5, 0.109532, -0.133122
-2.5, 0.125875, -0.21771
-2.5, -0.05415, -0.11441
-2.5, 0.009122, -0.02608
-2.5, 0.084601, -0.06232
2.5, -0.193734, 0.640505
2.43076, -0.480135, 0.639899
-2.11166, 0, 0.8
-2.07166, 0.069132, 0.797007
-2.15123, 0.069191, 0.797002
-2.07166, -0.069135, 0.797007
-2.03193, 0, 0.8
-2.19099, 0, 0.8
-2.15123, -0.06919, 0.797002
-2.11155, 0.137663, 0.788066
-2.19163, 0.137683, 0.788063
-2.23067, 0.069398, 0.796984
-1.99191, 0.069154, 0.797005
-2.03169, 0.137727, 0.788055
2.5, -0.59023, 0.137732
2.5, -0.533991, 0.082111
2.5, -0.519317, 0.157592
2.5, -0.567737, 0.204642
2.5, -0.642281, 0.189079
2.5, -0.609519, 0.068359
2.5, -0.491816, 0.22983
2.5, -0.478142, 0.098674
2.5, -0.448259, 0.163519
2.5, -0.469894, 0.020188
2.5, -0.550001, 0.025601
2.5, -0.766961, 0.227531
2.43362, -0.755045, 0.264399
2.36873, -0.767024, 0.227318
2.5, -0.693898, 0.242763
-1.74643, 0.454196, -0.658563
-1.78641, 0.395888, -0.695178
-1.78613, 0.508713, -0.617423
-2.5, -0.378531, -0.623807
-2.5, -0.316562, -0.580505
-2.07187, 0.205315, 0.773205
-2.1517, 0.204693, 0.77337
-2.11333, 0.271429, 0.752547
-2.22317, -0.510232, -0.616168
-2.29248, -0.478694, -0.640977
1.10709, -0.069085, -0.797011
1.02716, -0.069085, -0.797011
1.14707, -0, -0.8
1.18703, -0.069085, -0.797011
1.14706, -0.137595, -0.788078
1.06713, -0, -0.8
0.947216, -0.069086, -0.797011
0.987184, -0, -0.8
2.5, -0.252468, -0.699607
2.5, -0.224564, -0.640785
2.5, -0.234511, -0.764856
2.5, -0.18262, -0.711584
2.43085, -0.272472, -0.752169
2.43075, -0.193314, -0.776292
2.35946, -0.308417, -0.738159
2.36193, -0.232469, -0.765479
-2.5, -0.486399, -0.340221
-2.5, -0.433243, -0.402349
1.67107, 0.069179, 0.797003
1.6128, -0.748868, -0.281418
1.68055, -0.758251, -0.255058
-1.7889, -0.510336, -0.616082
-0.420224, 0.509082, -0.617119
-0.463921, 0.454585, -0.658295
-0.546088, 0.45504, -0.65798
2.5, 0.32486, 0.58413
2.5, 0.254973, 0.611775
2.5, 0.200224, 0.562916
2.5, 0.313666, 0.661798
-1.42901, 0.768058, 0.2238
-1.22702, 0.607358, -0.520688
-1.18705, 0.560374, -0.570948
-1.22702, 0.509246, -0.616983
-1.34692, 0.454332, -0.65847
2.5, -0.182852, -0.264874
2.5, -0.16723, -0.181609
2.5, -0.034983, -0.191715
2.5, -0.092507, -0.153409
1.0272, -0.45424, -0.658533
1.10711, -0.454227, -0.658542
-0.99303, 0.510543, 0.61591
-0.952726, 0.455465, 0.657686
-0.948152, 0.720213, -0.348271
-0.90891, 0.747599, -0.284773
-1.06729, 0.68752, -0.409042
-0.787835, 0.560761, -0.570568
-0.748103, 0.608042, -0.51989
-0.707761, 0.561137, -0.570198
-2.0989, 0.38859, -0.699284
-0.672101, -0.510722, 0.615762
-0.752444, -0.510728, 0.615757
-0.712412, -0.455618, 0.657581
-1.43217, -0.205439, 0.773172
-1.35222, -0.205439, 0.773172
-1.39219, -0.13783, 0.788037
-1.47215, -0.271498, 0.752522
-1.39219, -0.271497, 0.752522
-1.31224, -0.271497, 0.752522
-1.27226, -0.205439, 0.773172
-1.31224, -0.13783, 0.788037
-1.43217, -0.06918, 0.797003
-1.35222, -0.06918, 0.797003
0.787763, -0.561014, -0.570319
0.747431, -0.509908, -0.616436
0.119343, -0.528635, -0.600454
0.170334, -0.484369, -0.6367
1.50677, -0.205034, -0.77328
0.079102, 0.189866, -0.777143
0.11822, 0.128131, -0.789672
0.040849, 0.250063, -0.759913
0.002659, 0.189821, -0.777154
0.171893, 0.798178, 0.053965
0.151871, 0.767976, 0.224081
0.258494, -0.775719, 0.1956
0.169653, -0.770615, 0.214831
0.199667, -0.787201, 0.142528
0.316842, -0.759956, 0.249933
0.226516, -0.753775, 0.268
0.292769, -0.79076, 0.121238
0.353885, -0.780078, 0.177423
0.141825, -0.747461, 0.285135
0.086247, -0.767356, 0.226198
0.112657, -0.783981, 0.159291
2.1551, 0.690396, 0.40417
2.15427, 0.646213, 0.471603
2.22373, 0.66857, 0.439333
2.08548, 0.669756, 0.437524
2.0869, 0.710954, 0.366802
2.08418, 0.621282, 0.503993
2.22328, 0.621442, 0.503795
2.15349, 0.5953, 0.534432
-0.587008, 0.396552, -0.6948
0.786416, 0.721727, -0.345123
0.37367, -0.739658, 0.304805
0.282855, -0.733119, 0.320213
0.468233, -0.744219, 0.293492
0.428704, -0.71442, 0.360006
0.412199, -0.764738, 0.234895
0.33756, -0.708207, 0.372078
0.197612, -0.725566, 0.336977
0.250432, -0.700223, 0.386895
-0.827643, -0.748836, -0.281503
-1.90672, -0.335011, -0.726476
-1.94709, -0.39548, -0.69541
-1.90857, -0.454712, -0.658208
-1.94675, -0.271155, -0.752645
-1.9871, -0.334318, -0.726795
1.54582, 0.605579, -0.522757
1.58474, 0.649463, -0.467116
1.62435, 0.605879, -0.522409
1.58531, 0.558454, -0.572826
1.50663, 0.558258, -0.573017
1.46763, 0.605435, -0.522923
1.5071, 0.648951, -0.467827
1.62506, 0.689339, -0.405969
1.66296, 0.648695, -0.468182
1.54693, 0.688843, -0.406811
1.66562, 0.559324, -0.571976
-0.830847, 0.786589, 0.145866
-0.912292, 0.786658, 0.145495
-1.82354, 0.722143, 0.344251
-1.81975, 0.681718, 0.418641
-1.75478, 0.704016, 0.37995
-1.75614, 0.741098, 0.301288
-1.88871, 0.700286, 0.386781
-1.75117, 0.655614, 0.458444
-1.67971, 0.724259, 0.339778
-1.69729, 0.686727, 0.410373
-1.88542, 0.656096, 0.457754
-1.82172, 0.64053, 0.479293
0.991537, -0.271345, 0.752577
1.03147, -0.205268, 0.773217
1.0714, -0.137676, 0.788064
-2.5, -0.116478, -0.191457
-2.5, -0.149665, -0.121336
-2.5, -0.087572, -0.267841
-2.5, -0.210362, -0.185434
-2.5, -0.173445, -0.260976
-2.5, -0.089347, -0.051747
-2.12273, -0.799994, -0.003163
-2.18508, -0.799151, -0.036855
-2.11278, -0.797297, 0.065712
-2.1037, -0.787764, 0.139381
-2.04216, -0.794586, 0.092914
-0.551233, 0.334204, 0.726848
-0.592178, 0.27077, 0.752784
-0.509459, 0.394872, 0.695756
-0.63258, 0.205084, 0.773266
-0.552658, 0.204687, 0.773371
-1.0284, -0.561801, -0.569543
-1.06904, -0.608791, -0.519012
-1.029, -0.651424, -0.464378
-1.10892, -0.561547, -0.569793
-1.06831, -0.510394, -0.616034
-0.51241, -0.271272, 0.752603
-0.432054, -0.270612, 0.752841
-0.47296, -0.205023, 0.773282
-0.592575, -0.271484, 0.752527
-0.552103, -0.335429, 0.726283
-0.552832, -0.205349, 0.773196
-0.471328, -0.335006, 0.726478
2.5, -0.741584, 0.300087
-0.421961, 0.505845, 0.619775
-0.466506, 0.452263, 0.659892
-2.5, -0.298141, 0.52454
-2.5, -0.315732, 0.593725
-2.5, -0.355319, 0.485082
-2.5, -0.257024, 0.560849
-2.5, -0.283273, 0.460546
-2.5, -0.216068, 0.505167
-0.191561, -0.261584, 0.756025
0.004459, -0.309803, 0.737579
0.041552, -0.250259, 0.759849
0.632098, 0.069122, 0.797008
0.592207, 0, 0.8
0.55269, -0.068736, 0.797042
0.592267, -0.137138, 0.788158
0.787391, -0.069085, -0.797011
0.667717, 0.137791, -0.788044
0.627899, 0.069119, -0.797009
-1.952, 0, 0.8
-1.91199, -0.069172, 0.797004
-1.87202, 0, 0.8
-1.912, 0.069151, 0.797006
-1.99191, -0.069163, 0.797005
-1.83202, -0.069177, 0.797004
-1.87199, -0.137812, 0.78804
1.18674, -0.769237, -0.219715
1.22664, -0.747461, -0.285136
1.26788, -0.769553, -0.218606
1.14717, -0.74739, -0.285321
1.10759, -0.769193, -0.219869
1.06792, -0.747381, -0.285346
1.10744, -0.720027, -0.348657
1.187, -0.720058, -0.348592
0.992631, -0.786232, 0.147781
1.03426, -0.796226, 0.077619
-1.23895, 0.748033, 0.283631
-1.19763, 0.721032, 0.346573
-1.31234, 0.270423, 0.752909
-1.27231, 0.204774, 0.773348
-1.19238, 0.204962, 0.773299
-1.35238, 0.333928, 0.726975
-1.35222, 0.204629, 0.773387
-1.39219, 0.270226, 0.75298
-1.23229, 0.137475, 0.788099
-1.31224, 0.137385, 0.788115
-0.37541, 0.55508, 0.576095
-0.413945, 0.604102, 0.524463
-0.326619, 0.599526, 0.529687
-0.337843, 0.501756, 0.62309
-0.36457, 0.644739, 0.473616
0.391142, -0.678525, 0.423796
0.304992, -0.326174, -0.730487
-0.11415, 0.130139, -0.789344
-0.074107, 0.192208, -0.776567
-0.034388, 0.251849, -0.759323
0.389187, 0.202312, -0.773996
0.347589, 0.265848, -0.754536
-1.42833, 0.720627, -0.347414
-1.38669, 0.747795, -0.284259
-1.34698, 0.720451, -0.347779
-1.46283, 0.746679, -0.287177
-1.51375, 0.726689, -0.334549
-1.30678, 0.687679, -0.408776
-0.154713, 0.194423, 0.776015
-0.191864, 0.259091, 0.756883
-0.228395, 0.322807, 0.73198
-1.15279, -0.786732, 0.145095
-1.23278, -0.786746, 0.145021
-1.11353, -0.796793, 0.071555
0.135336, -0.654321, 0.460287
0.168122, -0.691898, 0.401593
-0.383719, 0.449365, 0.661869
-0.30102, 0.444813, 0.664937
-0.667478, -0, -0.8
-0.627623, 0.069082, -0.797012
1.07138, 0.137829, 0.788037
1.11136, 0.205438, 0.773172
0.991425, 0.137831, 0.788037
1.15134, 0.137829, 0.788038
1.11136, 0.06918, 0.797003
1.0314, 0.06918, 0.797003
1.19132, 0.205437, 0.773172
-0.707271, -0.455621, -0.657579
-0.626853, -0.455584, -0.657604
-0.545811, -0.455425, -0.657714
-0.503799, -0.510323, -0.616093
1.79415, 0.510753, 0.615737
1.7517, 0.455658, 0.657553
1.83307, 0.456083, 0.657258
1.84212, 0.561013, 0.570319
1.8778, 0.512238, 0.614502
1.67104, 0.455439, 0.657705
1.71105, 0.396945, 0.694575
1.79135, 0.397195, 0.694432
1.87208, 0.397215, 0.694421
1.91514, 0.45516, 0.657898
-2.5, -0.055917, 0.205299
-2.5, -0.114653, 0.151437
-2.5, 0.014819, 0.255628
-2.5, 0.012418, 0.166171
-2.5, -0.033467, 0.124066
-1.47253, -0.609407, 0.518289
-1.43217, -0.561891, 0.569455
-1.55274, -0.609744, 0.517892
0.987221, -0.395957, -0.695139
1.06714, -0.395941, -0.695148
-1.51192, 0.333661, 0.727097
-1.59178, 0.333835, 0.727017
-1.6319, 0.270461, 0.752895
-1.43214, 0.33369, 0.727084
-1.47204, 0.394582, 0.695921
-1.55172, 0.394625, 0.695896
-1.63152, 0.394946, 0.695714
-1.67172, 0.334159, 0.726869
-2.5, 0.56883, 0.562523
-2.5, 0.498588, 0.545294
-2.5, 0.445932, 0.664188
-2.43073, 0.41227, 0.68559
-2.5, 0.509935, 0.616414
-2.36153, 0.377593, 0.705282
-2.29249, 0.412521, 0.685439
1.91092, -0.205238, 0.773225
1.95091, -0.271101, 0.752665
1.99084, -0.205211, 0.773233
1.83098, -0.205179, 0.773241
1.95091, -0.137727, 0.788055
-1.88468, -0.656257, -0.457522
-1.8172, -0.681061, -0.41971
-1.88798, -0.70033, -0.3867
-1.81957, -0.640268, -0.479643
-1.87169, -0.606912, -0.521208
-1.95332, -0.676031, -0.427764
-1.94711, -0.626021, -0.498094
-1.7528, -0.70278, -0.382231
-1.82274, -0.721915, -0.344729
-1.74694, -0.654151, -0.460528
-1.89381, -0.737334, -0.310385
-1.95863, -0.717523, -0.353781
1.89633, 0.785456, 0.151854
1.88695, 0.763874, 0.23769
1.95932, 0.774005, 0.202278
1.83649, 0.794302, 0.095308
1.82322, 0.777913, 0.186684
1.97, 0.790981, 0.119787
1.91029, 0.79719, 0.066998
-2.10732, 0.13785, -0.788034
-2.0268, 0.137832, -0.788037
-2.06758, 0.205779, -0.773081
-1.94669, 0.137678, -0.788064
-1.98674, 0.06912, -0.797008
-0.707458, -0.205462, -0.773166
-0.747412, -0.137836, -0.788036
-0.667542, -0.137832, -0.788037
-0.787379, -0.205454, -0.773168
-0.747414, -0.271538, -0.752507
-0.627567, -0.205442, -0.773171
-0.667449, -0.271535, -0.752508
-2.5, 0.378845, 0.624234
-2.5, 0.377511, 0.705326
-2.5, 0.44209, 0.579411
-2.5, 0.380972, 0.538063
1.27354, 0.79685, 0.070926
1.2323, 0.786661, 0.14548
1.31495, 0.786865, 0.144375
1.19304, 0.796696, 0.072636
1.23479, 0.799995, -0.002761
1.35405, 0.79702, 0.068991
1.27239, 0.770588, 0.214929
1.35523, 0.770844, 0.214008
1.40317, 0.787068, 0.143262
2.0685, 0.798856, -0.042774
2.12279, 0.79998, -0.005663
2.12331, 0.79643, -0.075489
2.05427, 0.793376, -0.102734
1.99894, 0.798749, -0.044719
2.05283, 0.799838, 0.0161
2.04463, 0.780856, -0.173963
1.9832, 0.790207, -0.124791
2.11501, 0.786783, -0.14482
0.119516, -0.718392, 0.352012
0.089792, -0.683928, 0.415021
2.18504, 0.799014, -0.039713
2.18229, 0.792088, -0.112236
2.11297, 0.79745, 0.063821
2.18164, 0.799322, 0.032929
1.0717, 0.786608, 0.145769
1.15183, 0.786602, 0.1458
1.11188, 0.796657, 0.073062
1.03183, 0.770479, 0.21532
1.11165, 0.770482, 0.215308
1.19151, 0.770491, 0.215274
1.15332, 0.799999, -0.000962
1.07203, 0.799998, -0.001845
-1.99924, 0.798765, 0.044438
-2.04269, 0.794964, -0.089622
-2.05308, 0.799848, -0.015591
-2.11316, 0.797544, -0.062638
-2.06863, 0.798884, 0.042236
-2.12292, 0.79998, 0.005605
-1.74933, 0.562695, -0.56866
-1.71065, 0.608671, -0.519152
-1.66763, 0.561129, -0.570205
-1.70706, 0.50982, -0.616509
-1.80654, 0.671135, -0.435406
-1.74548, 0.650543, -0.465611
-1.67324, 0.654686, -0.459767
-1.62868, 0.609352, -0.518353
-2.5, -0.377139, 0.705525
-2.5, -0.313925, 0.665006
2.43327, 0.121336, -0.790745
2.5, 0.065445, -0.669306
2.5, -0.00056, -0.673347
2.5, 0.106495, -0.72689
2.5, 0.154135, -0.785011
-2.29216, -0.412003, -0.68575
-2.22292, -0.375796, -0.706242
-2.22359, -0.446007, -0.664137
-2.29249, -0.341014, -0.723678
-2.29285, -0.266068, -0.754459
-2.22654, -0.300076, -0.741589
2.19086, -0.137854, 0.788033
2.15031, -0.069207, 0.797001
2.11066, -0.137739, 0.788053
2.15096, -0.204985, 0.773293
2.22987, -0.069457, 0.796979
2.2314, -0.205219, 0.77323
2.27188, -0.137458, 0.788102
2.30967, -0.072022, 0.796751
2.30308, -0.19892, 0.774875
-2.28342, 0.267381, 0.753994
-2.23194, 0.204625, 0.773388
-2.19475, 0.268118, 0.753732
-2.22878, 0.316925, 0.734547
-2.3617, 0.229991, 0.766227
-2.30357, 0.197976, 0.775117
-2.29309, 0.342898, 0.722787
-2.35963, 0.304838, 0.739644
-2.15497, 0.337916, 0.72513
-2.27248, 0.137085, 0.788167
-0.872486, 0.205383, 0.773187
-0.912457, 0.137783, 0.788046
-0.832497, 0.137791, 0.788044
-0.992423, 0.137746, 0.788052
-0.428654, -0.137235, -0.788141
-0.389318, -0.06867, -0.797047
-2.5, 0.522027, -0.41789
-2.5, 0.449295, -0.40146
-2.5, 0.417758, -0.448961
-2.5, 0.490935, -0.35062
2.09582, 0.770556, 0.215043
2.09006, 0.744818, 0.291968
2.02403, 0.760281, 0.248945
2.01931, 0.730174, 0.326872
-1.14975, -0.608457, -0.519403
-1.10991, -0.6512, -0.464692
2.5, 0.129421, -0.657722
2.35494, 0.142752, -0.787161
-0.389317, 0.068616, -0.797052
-0.349488, 0.136232, -0.788315
-0.582962, 0.748447, -0.282537
-0.494799, 0.748193, -0.283209
-0.625987, 0.721296, -0.346023
-0.667419, 0.748394, -0.282676
-0.625026, 0.770327, -0.215861
-0.53806, 0.77015, -0.216494
-0.401738, 0.747366, -0.285384
-0.787358, 0.205082, -0.773267
-0.827319, 0.137614, -0.788075
2.5, -0.539243, -0.033596
2.5, -0.614528, -0.004394
2.5, -0.604659, -0.076221
2.5, -0.534834, -0.104568
1.70606, 0.395424, -0.695442
1.62614, 0.394913, -0.695732
1.66571, 0.453251, -0.659214
1.66633, 0.334132, -0.726881
1.74648, 0.454556, -0.658315
1.54636, 0.394608, -0.695905
1.58602, 0.452701, -0.659592
1.58641, 0.333815, -0.727026
1.6254, 0.507667, -0.618283
1.70625, 0.508757, -0.617386
-1.07239, 0.137678, 0.788064
-1.11243, 0.205141, 0.773251
-1.15234, 0.137582, 0.788081
-1.03239, 0.069125, 0.797008
-2.01643, 0.542192, -0.588241
-0.414291, -0.60763, -0.520371
-0.324563, -0.60507, -0.523346
-0.07253, 0.311913, 0.736689
-0.149536, 0.317241, 0.73441
-0.113401, 0.254556, 0.75842
0.002858, 0.308742, 0.738023
-0.035999, 0.251008, 0.759602
0.6641, -0.607942, 0.520007
-1.82664, 0.20509, -0.773264
-1.86667, 0.137639, -0.788071
1.98526, 0.799077, 0.038422
1.93296, 0.799982, -0.005295
2.0424, 0.794758, 0.091428
1.91963, 0.796923, -0.070095
1.85636, 0.799998, -0.001643
-2.07156, 0.332542, 0.72761
-1.95189, 0.137729, 0.788055
-1.91596, -0.455127, 0.65792
-1.87305, -0.397178, 0.694442
-1.95494, -0.398875, 0.693469
-2.00448, -0.463282, 0.652204
-1.9506, -0.506869, 0.618938
-1.87855, -0.512235, 0.614504
-1.87199, 0.137718, 0.788057
-1.83197, 0.205182, 0.77324
-1.7919, 0.270979, 0.752709
-1.83182, 0.334935, 0.726511
1.02787, 0.455383, -0.657743
0.98795, 0.510583, -0.615877
1.0683, 0.510396, -0.616032
1.10808, 0.455119, -0.657926
0.987601, 0.396927, -0.694586
0.947669, 0.455518, -0.65765
1.06771, 0.396738, -0.694693
1.02838, 0.561802, -0.569542
0.907665, 0.510675, -0.615801
0.947938, 0.561929, -0.569417
1.1089, 0.56155, -0.569791
-2.5, 0.154006, -0.383501
-2.5, 0.07253, -0.402006
-2.5, 0.09152, -0.334166
-2.5, 0.125091, -0.459011
-2.5, 0.140337, -0.297789
-2.5, 0.217601, -0.333638
-2.5, 0.187952, -0.450159
-2.5, 0.234713, -0.409588
-2.5, 0.053039, -0.47144
-2.5, -0.00925, -0.415216
-2.5, 0.023962, -0.340698
-2.08959, 0.672544, 0.433226
-2.01878, 0.650202, 0.466087
-2.02363, 0.695687, 0.394993
-2.08583, 0.623918, 0.500726
-2.15664, 0.648221, 0.468838
-2.09415, 0.713191, 0.362434
-2.15968, 0.692256, 0.400975
-2.01334, 0.596476, 0.533119
-1.94782, 0.625843, 0.498317
-1.95342, 0.675961, 0.427874
-1.95872, 0.717406, 0.354017
-2.02957, 0.732591, 0.321419
2.11063, 0.137678, 0.788064
2.15087, 0.204681, 0.773373
2.07095, 0.205348, 0.773196
-0.275711, 0, 0.8
-0.196705, 0, 0.8
-0.157029, 0.065601, 0.797306
-0.315213, -0.068114, 0.797095
-0.236175, -0.067193, 0.797173
-0.354669, 0, 0.8
1.97315, 0.773939, -0.202529
1.91064, 0.785332, -0.152491
2.03647, 0.760457, -0.248406
2.107, 0.769972, -0.217124
0.1183, 0.799095, -0.038036
0.21943, 0.435194, 0.671272
-0.453562, 0.648216, 0.468846
1.43204, 0.721405, 0.345797
1.39076, 0.748439, 0.282557
1.10709, 0.069092, -0.797011
1.02715, 0.069128, -0.797008
1.06714, 0.137686, -0.788063
1.14708, 0.13759, -0.788079
1.18703, 0.069049, -0.797015
1.02723, 0.205292, -0.773211
1.10717, 0.205156, -0.773247
0.079857, 0.189771, 0.777166
0.002019, 0.189403, 0.777256
0.041159, 0.127076, 0.789843
0.040666, 0.249943, 0.759953
-0.076115, 0.191233, 0.776807
-0.037679, 0.127617, 0.789756
0.080926, 0.063965, 0.797439
0.001693, 0.063857, 0.797447
-0.264654, 0.384936, 0.701302
-0.116682, 0.1294, 0.789465
-0.077703, 0.064506, 0.797395
-1.14708, 0.137609, -0.788076
-1.10711, 0.06909, -0.797011
-1.14708, 0.270935, -0.752725
-1.18705, 0.205061, -0.773272
-0.752559, 0.137764, 0.788049
-0.672669, 0.137685, 0.788063
-2.08332, 0.56847, 0.562887
-2.15436, 0.597045, 0.532483
-2.1522, 0.539817, 0.590422
-1.51693, 0.72515, 0.337871
-1.55163, 0.688957, 0.406618
-1.51236, 0.648978, 0.46779
-1.47284, 0.605418, 0.522943
0.99144, -0.13774, 0.788053
1.0314, -0.069123, 0.797008
0.951487, -0.205337, 0.773199
0.911486, -0.137767, 0.788048
0.951445, -0.069145, 0.797006
0.429743, 0.136343, -0.788296
0.705317, -0.770316, -0.215902
0.663272, -0.748406, -0.282646
0.747667, -0.748329, -0.28285
0.618451, -0.770139, -0.216532
1.78661, -0, -0.8
1.74663, 0.069112, -0.797009
1.82663, -0.06909, -0.797011
1.82663, 0.069138, -0.797007
1.86661, -0, -0.8
1.66667, 0.069077, -0.797012
1.70664, 0.137583, -0.788081
1.35122, -0.068984, 0.79702
1.3912, 0, 0.8
1.27127, -0.069008, 0.797018
1.31125, -0.137385, 0.788115
1.31125, 0, 0.8
1.39119, -0.137337, 0.788123
1.43118, 0.06918, 0.797003
1.35122, 0.06918, 0.797003
1.67816, 0.72314, -0.342153
1.69339, 0.757623, -0.25692
1.75561, 0.739967, -0.304055
1.69404, 0.685068, -0.413136
1.75285, 0.702023, -0.383618
1.62487, -0.791616, -0.115518
1.55948, -0.797301, -0.065661
1.54996, -0.784849, -0.15496
1.61319, -0.77346, -0.204354
1.68798, -0.782422, -0.166778
1.7007, -0.796212, -0.077756
1.49348, -0.799902, -0.012512
1.48177, -0.794017, -0.097654
1.48116, -0.780052, -0.177538
1.53398, -0.759374, -0.251698
-0.020052, -0.748129, 0.283377
0.059818, -0.740931, 0.301696
-0.006794, -0.71985, 0.349022
-0.083147, -0.728942, 0.329611
-0.092373, -0.758305, 0.2549
-0.035768, -0.772951, 0.206268
0.026749, -0.764761, 0.23482
0.054908, -0.711193, 0.36634
-0.070026, -0.696318, 0.393879
0.01167, -0.684982, 0.41328
-0.629297, -0.721688, 0.345204
-0.711436, -0.721734, 0.345108
-0.751815, -0.748832, 0.281514
-0.544521, -0.721509, 0.345578
-0.588356, -0.689138, 0.406312
-0.529128, 0.769393, 0.219169
-0.577406, 0.747995, 0.283732
-0.477407, 0.785473, 0.151765
-0.522783, 0.795976, 0.080139
-0.662154, 0.799991, 0.003721
-0.573559, 0.799984, 0.005078
-1.11202, -0.770167, -0.216433
-1.15354, -0.786068, -0.148652
-1.03025, -0.770379, -0.215677
-1.19387, -0.76989, -0.217417
-1.07077, -0.748647, -0.282007
-1.02968, -0.721595, -0.3454
-0.989408, -0.748759, -0.281709
0.66683, 0.397003, -0.694542
0.706852, 0.455578, -0.657608
0.747245, 0.397073, -0.694502
0.625828, 0.45542, -0.657718
0.585887, 0.396734, -0.694696
0.707272, 0.335544, -0.72623
0.543784, 0.454909, -0.658072
2.5, 0.14861, -0.589311
2.5, 0.085065, -0.599209
2.5, 0.104391, -0.530206
2.5, 0.205713, -0.584953
2.5, 0.178663, -0.523539
2.5, 0.027482, -0.545092
2.5, 0.030739, -0.615497
2.5, 0.739154, -0.037275
2.5, 0.730224, -0.107871
2.5, 0.799998, -0.001666
2.5, 0.681069, -0.068182
2.5, -0.45773, 0.408288
2.5, -0.412373, 0.442075
2.03184, 0.781844, 0.16947
2.10389, 0.787979, 0.138161
-0.460209, -0.561222, -0.570114
-0.419894, -0.509405, -0.616852
-0.373762, -0.55964, -0.571667
-0.334467, -0.507006, -0.618825
-0.285787, -0.555888, -0.575316
-0.463688, -0.454915, -0.658067
0.827603, -0.74862, 0.282079
2.5, -0.768635, -0.221813
2.5, -0.64878, -0.186262
2.5, -0.716853, -0.169907
2.434, -0.778311, -0.185017
2.36643, -0.768726, -0.221496
2.5, 0.592771, 0.312097
2.5, 0.557303, 0.36967
2.5, 0.520356, 0.30891
2.5, 0.666417, 0.31048
2.5, 0.632231, 0.373893
2.5, 0.550303, 0.252002
2.5, 0.623638, 0.254196
2.5, 0.478068, 0.248341
2.36913, -0.786383, -0.146978
2.29755, -0.757675, -0.256766
2.3013, -0.778885, -0.182586
2.5, -0.786322, -0.147301
2.43535, -0.792401, -0.110005
2.37165, -0.796767, -0.071851
2.30548, -0.792681, -0.107969
1.76239, -0.789631, -0.128388
1.77752, -0.799042, -0.039134
1.75121, -0.76938, -0.219214
1.82403, -0.779422, -0.180279
1.83744, -0.794863, -0.090513
1.85718, -0.79999, 0.004071
2.5, 0.128636, -0.46016
2.5, 0.161193, -0.390098
0.911495, -0.271385, 0.752562
-1.71145, 0.395465, 0.695419
-1.7918, 0.396403, 0.694884
-1.75173, 0.334558, 0.726685
-1.75172, 0.454494, 0.658358
-1.67109, 0.453294, 0.659185
